-0.801278 0.106685 -0.235965
0.197046 -0.423050 0.490592
-0.767139 -0.135837 0.246258
-0.063145 0.067008 0.573871
0.733626 0.694973 0.914292
0.078113 0.764775 0.590687
0.093364 -0.467907 -0.053683
-0.594937 -0.927879 0.912317
0.009357 -0.913160 -0.361045
-0.161311 0.018182 0.765298
0.231924 0.195173 0.285287
-0.777689 0.876624 -0.364502
0.802486 -0.918686 0.964826
-0.962731 0.944829 -0.351159
0.953448 -0.637616 -0.349115
-0.972749 -0.715253 0.546065
0.711507 0.674299 0.686974
0.670042 -0.404401 -0.822866
-0.749325 -0.823569 -0.675649
0.200703 -0.518677 0.521157
-0.042725 0.735326 -0.955608
-0.212991 0.748544 -0.003908
0.270655 -0.246932 0.039721
0.271126 0.214391 0.274405
-0.391464 0.498445 0.433944
-0.249564 0.286184 -0.517271
0.273826 0.169851 -0.386877
-0.821920 0.861037 0.141671
0.926489 -0.833755 -0.060829
-0.849021 -0.605953 -0.761511
0.771213 -0.076312 -0.944941
0.428796 0.755369 0.279215
-0.171175 0.662665 -0.427713
-0.203166 -0.249476 0.528981
0.658341 -0.558496 0.966626
0.838487 0.223306 -0.605793
0.427700 -0.219547 0.808775
0.855765 0.413432 0.650019
0.991146 -0.451033 -0.090888
0.879768 0.639938 0.744857
0.311561 -0.359643 0.599425
0.894342 0.489215 -0.686633
-0.786465 0.214712 0.337035
0.857632 -0.107724 0.514191
0.928233 -0.387064 -0.946382
0.547050 -0.320977 0.393903
0.662493 0.061290 0.511118
0.987264 -0.710038 0.865631
-0.125010 0.130361 -0.352317
-0.917913 -0.972298 0.145222
-0.451245 -0.967497 0.697303
0.326926 -0.985017 -0.232868
-0.959656 -0.543246 0.789719
-0.411570 -0.284761 -0.120914
0.378224 0.225846 0.791069
-0.222594 0.463616 0.423054
-0.805328 0.219240 0.661657
0.434584 -0.157978 0.994154
-0.552072 -0.426396 -0.073706
0.053420 0.530383 0.745769
0.345408 0.285742 0.374898
-0.845573 0.694417 -0.384086
0.662677 0.985746 0.017296
-0.516971 0.882062 -0.471177
-0.484897 -0.050037 -0.488355
-0.508334 0.393329 -0.789289
-0.249079 -0.582253 0.467217
0.468753 -0.946153 0.497248
-0.111765 0.957519 -0.594470
-0.405087 0.860477 0.290305
-0.224546 0.704042 -0.143003
0.906456 -0.175873 0.868110
0.644243 -0.734754 0.878322
0.144408 0.238464 -0.566041
0.889410 -0.074004 -0.409911
-0.208489 0.068117 0.611015
-0.582276 -0.495076 0.766777
-0.502413 0.978951 0.214530
-0.199314 -0.405522 0.908575
0.896593 0.338657 0.556000
-0.627776 -0.304130 -0.840524
0.094702 -0.021124 -0.395483
0.634450 0.681037 0.485185
-0.254546 -0.061733 -0.209928
-0.403948 0.105092 0.114020
0.300188 0.208405 -0.052242
-0.623885 -0.947779 -0.111055
0.857127 0.204952 0.406942
0.715022 0.036862 0.180376
0.485916 -0.495592 0.287468
0.746750 -0.617445 -0.986278
-0.666942 0.541736 -0.186281
-0.755519 0.865963 0.085210
-0.683024 -0.985454 -0.388335
0.809854 0.764961 0.935310
0.262127 -0.542414 0.304023
0.869279 0.056870 0.335095
-0.789587 0.218054 0.002042
0.166940 0.771783 0.544400
0.219041 0.712918 0.077788
0.259857 -0.688956 0.884729
-0.835566 -0.739442 0.219781
0.039052 -0.382418 -0.298128
0.691858 -0.396779 0.719320
-0.782052 -0.833412 -0.095580
0.832171 0.386461 0.743643
0.797203 0.694535 -0.977993
-0.456766 0.515077 0.691708
0.872033 -0.039956 0.580092
-0.499593 0.093400 -0.846909
0.500619 -0.684014 0.382579
-0.668708 0.061869 0.511638
0.959710 0.575549 -0.151957
0.570135 0.155274 -0.668997
-0.579407 -0.840112 0.348516
-0.145082 -0.989397 -0.483279
-0.346621 -0.145647 -0.938078
-0.759809 -0.513514 0.131597
0.947019 0.961161 -0.127051
0.418437 -0.892279 0.516084
-0.104082 0.994226 -0.329985
0.416178 -0.105018 -0.624353
-0.833465 -0.203490 0.837047
-0.739109 0.304303 -0.664755
0.659523 0.039436 -0.505602
0.070159 0.622873 -0.768739
0.766238 -0.559565 0.814567
-0.537248 -0.810588 -0.185149
-0.230382 0.279598 0.864975
0.485642 0.888298 0.067812
-0.805320 0.253597 0.173909
0.925395 0.152939 0.041586
0.307623 -0.792336 0.174144
-0.975906 0.606173 -0.142581
-0.755756 0.790748 -0.524909
0.577837 0.009019 -0.726554
0.287294 0.554052 -0.696316
0.989545 0.040456 -0.907105
0.490868 0.465277 0.713957
0.355791 -0.883476 0.319136
-0.193026 -0.825074 -0.724016
0.227339 0.573079 -0.022579
-0.630196 0.808970 -0.494284
0.261425 -0.126923 -0.393375
-0.998808 0.928173 0.362123
0.374221 0.071586 -0.290613
-0.439042 -0.570740 0.624028
-0.352287 -0.129406 -0.373423
0.569181 -0.994115 -0.427260
-0.682291 0.054270 0.802021
-0.015173 -0.122801 -0.744152
-0.721819 0.969892 0.902828
0.204272 -0.675853 -0.367443
-0.325398 -0.413922 0.174730
0.922406 0.025866 -0.481694
0.197805 -0.088699 -0.575564
0.873899 -0.398084 -0.387530
0.666127 0.536148 0.156715
-0.966406 -0.882608 -0.286366
-0.266409 0.155348 -0.153674
-0.592999 -0.508358 -0.861457
0.415609 0.028247 0.707731
0.466155 -0.606344 -0.196316
0.913067 0.215679 0.913444
0.105531 0.118391 -0.438526
-0.462595 0.905871 -0.428871
0.530947 0.328253 -0.382775
0.816043 -0.023510 0.261182
-0.753657 0.892436 0.736584
0.295195 0.762835 0.983514
0.780516 -0.535774 -0.152664
0.799718 -0.664041 -0.905253
0.346441 0.723039 -0.183326
-0.505279 -0.055905 -0.879918
-0.059753 0.644850 -0.778015
0.432989 -0.897934 -0.679958
-0.987609 0.770568 -0.710432
0.196191 0.804071 0.972897
0.271972 0.633442 -0.081494
-0.940068 -0.663006 0.627521
0.935682 -0.844770 0.553061
0.570291 0.587540 0.770204
0.557817 0.557213 -0.951356
0.366503 -0.090650 0.943993
-0.329070 0.651093 0.584928
-0.944764 0.258540 0.271922
0.691822 -0.060629 0.725502
-0.943876 0.876575 0.241735
0.415793 0.151910 0.114190
0.553222 0.369181 -0.503628
0.397901 0.824841 -0.547416
-0.360706 -0.177754 0.840830
0.128250 -0.319267 0.110776
0.378846 -0.544634 0.848684
-0.148939 0.860596 0.839760
0.365024 0.839861 -0.398438
0.709608 -0.441433 -0.886481
-0.840448 -0.663660 0.392344
0.593812 0.698957 -0.460384
0.828421 -0.774491 0.761306
0.122180 0.461911 0.927309
-0.132883 0.150511 0.377939
-0.598296 0.341887 0.342356
-0.493115 -0.719041 0.838597
-0.620598 0.732956 0.134230
0.038511 -0.517228 -0.777541
0.578829 0.475124 0.279671
0.081089 -0.424383 -0.838458
-0.111180 0.300413 -0.655948
0.816143 0.360565 0.423661
0.898706 0.615491 -0.178290
0.023811 -0.031724 0.363030
-0.765907 -0.472433 0.654941
-0.707340 -0.928428 -0.078005
0.351841 -0.351497 0.005891
0.468101 0.671519 -0.540142
-0.993940 0.060153 0.750752
0.616997 0.057529 0.134063
-0.650757 -0.044149 0.845799
-0.021935 -0.853788 0.279216
-0.467479 0.694650 -0.746161
-0.011763 0.031152 -0.781935
-0.429969 0.295653 0.425150
-0.756086 0.062290 0.905695
0.830641 -0.781778 0.660901
-0.344074 0.903521 -0.604246
0.323242 -0.403533 -0.613417
0.381297 -0.623599 -0.834727
0.340815 0.551276 0.302783
-0.674452 0.987798 0.440136
-0.267362 -0.966297 -0.478573
0.193272 0.640694 0.760225
0.738148 -0.576717 0.869582
0.885381 -0.462102 -0.449504
-0.471145 -0.932856 -0.778928
-0.606528 -0.743158 -0.131141
0.188556 -0.540346 0.252691
-0.490162 -0.766009 0.935814
-0.313522 -0.142140 0.891726
0.345919 0.688819 -0.806935
0.609617 0.342969 -0.163977
0.371994 -0.268804 0.316810
-0.093290 -0.289238 -0.791846
-0.565308 0.985494 0.008923
-0.016616 0.581567 -0.216279
0.343011 0.984793 0.038796
-0.722664 0.747448 -0.770802
0.263629 -0.057420 -0.126525
-0.304598 0.217118 -0.135513
0.374354 0.381393 -0.243138
-0.012050 0.227333 0.140314
0.851855 -0.463722 -0.682716
-0.154596 -0.895418 0.576973
0.094630 -0.416381 0.235047
-0.167693 0.008735 -0.663798
-0.388895 -0.147801 -0.388430
-0.850733 0.133198 -0.074018
0.176876 0.565733 -0.269598
-0.149220 -0.787072 0.826064
0.528481 0.843196 -0.747623
-0.597210 0.204499 0.970860
0.666669 0.704427 0.060936
0.275439 -0.797461 0.311286
0.208978 0.680445 0.665725
0.347763 0.208924 0.344739
0.247818 -0.082965 -0.958088
-0.122020 0.391810 0.511592
-0.104264 -0.945635 0.515417
-0.787911 -0.094277 0.587359
-0.563636 -0.900291 0.528871
-0.735244 -0.090786 0.457174
0.041094 -0.621652 -0.636843
-0.460916 -0.836030 0.531227
-0.393879 0.687672 -0.120646
0.247079 0.407514 0.888089
0.748774 -0.101275 0.126075
0.335351 0.939334 0.497973
0.028158 -0.272300 0.943488
-0.694511 0.041811 -0.900035
0.075709 -0.396291 -0.566877
0.158935 -0.791606 -0.101528
-0.815841 -0.311289 0.994470
-0.906785 0.896672 -0.776820
0.133566 -0.868880 -0.192742
-0.600883 -0.785588 -0.013295
-0.817929 -0.739379 -0.193562
0.541679 -0.648619 -0.873363
0.196315 -0.645669 -0.543726
0.128143 -0.615658 0.211018
-0.534556 -0.269598 0.862683
-0.968682 -0.972670 0.687774
-0.323166 -0.468137 -0.002279
-0.363385 -0.735586 0.498533
-0.791988 -0.088896 -0.230908
-0.539084 0.104027 -0.516596
-0.655223 -0.584616 0.795904
0.005836 -0.737605 -0.496238
0.956361 -0.269761 0.358138
-0.499819 0.752968 0.580468
0.267240 -0.471074 -0.701980
-0.124975 0.510299 -0.668208
0.286229 -0.755003 0.995476
-0.189613 0.090482 0.104671
0.061479 -0.038723 -0.670576
-0.140328 0.839174 0.887307
0.214452 0.419279 -0.055631
-0.981031 -0.841157 0.145875
0.528534 0.054900 -0.622471
0.391366 0.313457 0.699262
-0.075983 0.474104 0.849674
0.565390 -0.814797 0.121560
-0.524659 0.401520 -0.565917
0.818228 -0.436948 -0.606535
-0.647321 -0.677089 -0.208003
0.468239 -0.175790 0.403097
-0.839210 -0.083703 0.303148
-0.441903 -0.753897 -0.465737
0.042223 -0.672794 0.741871
0.331523 -0.051961 0.372139
-0.537747 -0.309791 0.850092
-0.545034 0.262166 0.861408
-0.814908 -0.088716 -0.282534
-0.888238 -0.888381 0.577831
0.447345 0.502702 -0.106810
0.549166 0.825472 -0.000716
0.749975 0.322883 -0.842994
0.008620 0.248892 0.113793
0.820940 0.081999 0.116222
-0.747022 -0.840559 0.886399
-0.206119 0.285859 -0.063796
-0.867896 -0.682826 0.014358
0.572631 -0.893762 0.305176
-0.594693 0.434562 -0.989758
0.827580 0.152781 0.262121
0.583619 0.440523 -0.652871
-0.562146 0.850861 -0.800677
0.167205 -0.892745 -0.809640
0.755875 -0.306931 0.105394
-0.358172 0.052393 0.635296
0.463300 -0.746523 0.071910
-0.146520 -0.661130 0.651771
-0.731013 -0.682883 -0.945039
-0.848894 0.393797 0.095313
0.560286 0.231023 0.500124
0.772478 0.964770 -0.005339
-0.107522 0.073346 -0.551575
-0.535921 0.046778 0.009688
-0.974582 -0.401254 -0.778877
0.906964 -0.891737 0.215612
-0.825638 0.454219 -0.230320
-0.347137 -0.881078 0.517311
0.389256 -0.328716 -0.843110
0.517289 0.698350 0.726492
-0.046791 -0.468170 0.596983
0.856338 -0.738558 0.596499
0.708863 -0.310304 -0.986537
0.409171 0.509931 -0.624672
0.864677 0.266821 -0.855125
0.670891 -0.150382 0.438322
0.940566 -0.202079 -0.161119
0.055468 -0.689568 -0.934621
0.635285 0.543732 0.896569
-0.813042 -0.679434 0.187271
-0.333229 -0.376357 0.417828
0.410739 -0.375831 -0.418981
0.144916 -0.846877 0.541187
-0.366496 -0.086926 0.403420
-0.105781 0.097707 -0.698808
-0.396695 0.752505 -0.729034
-0.638636 0.031998 -0.357759
0.469734 -0.085536 -0.754115
0.486273 -0.327226 -0.161947
-0.267192 -0.089157 -0.730801
-0.578275 0.132844 0.271630
-0.513335 0.710290 -0.341590
0.730311 -0.419721 0.090374
-0.326941 -0.583584 -0.549477
0.877810 0.896631 0.297005
-0.852016 -0.477108 0.864009
0.681700 0.873370 -0.913341
0.973808 0.515721 -0.142264
0.893248 -0.863712 -0.678443
-0.773034 0.199926 0.839960
0.836653 -0.117934 -0.702173
-0.044645 -0.077637 0.097538
-0.928978 -0.979291 0.432444
-0.947645 0.976240 0.371681
0.010368 -0.806163 -0.660827
0.778621 -0.211916 0.823615
-0.766969 0.316783 0.829441
-0.019538 -0.004617 -0.260052
-0.736638 -0.456497 -0.024880
0.277839 0.415266 -0.616790
0.516864 -0.101972 -0.023175
0.599615 -0.918616 -0.308218
-0.075510 0.959453 -0.800393
-0.314126 -0.854888 -0.433566
-0.371110 -0.312286 -0.857354
-0.861066 -0.064506 0.815842
0.596652 0.241833 -0.596505
0.108743 0.382615 0.347740
-0.250541 -0.304073 0.112298
-0.614600 -0.073421 0.948314
-0.254799 -0.221844 -0.733190
-0.903601 -0.019301 -0.168771
0.629154 0.762733 0.635177
-0.624614 -0.918523 0.446008
-0.277347 0.310692 0.995729
-0.299205 -0.013220 -0.292466
0.101217 0.564604 -0.123278
-0.227392 -0.795312 -0.055506
0.298188 0.134950 -0.055449
0.373597 0.135072 -0.239942
-0.064676 -0.391830 -0.652461
-0.540211 0.059708 -0.076375
-0.198675 -0.787509 -0.695481
0.043200 0.840119 0.410081
-0.941683 -0.552418 -0.869758
0.730438 0.167535 -0.789723
0.182309 0.580420 -0.336471
0.339600 0.713383 0.048926
0.221020 -0.269668 0.088578
-0.380832 -0.058499 0.929410
0.603546 0.206697 0.967995
-0.799985 0.610826 -0.283819
0.237557 -0.695034 0.140810
0.199377 0.890885 0.959570
0.998026 0.847565 0.075445
-0.845726 -0.225672 -0.784431
-0.386661 -0.644463 -0.524791
0.005264 -0.420887 -0.433012
0.046534 -0.166218 -0.032341
0.414385 -0.503061 0.594216
-0.339884 -0.466056 0.119798
-0.643470 -0.355692 0.204879
-0.788959 -0.004676 -0.362066
0.857690 0.278209 -0.569266
0.009821 -0.667742 0.772677
-0.752468 -0.998081 0.328421
-0.975515 -0.040368 -0.189619
0.745015 0.027030 -0.666637
-0.812532 0.216770 0.544922
-0.157162 -0.170353 -0.355321
0.384083 -0.290618 0.981439
0.116818 -0.164906 0.793482
-0.954380 0.695981 -0.320393
-0.581322 -0.949641 0.291707
-0.224702 -0.939529 0.382787
0.942382 -0.608982 0.166246
0.816170 0.504456 0.570904
-0.817391 -0.791255 0.133603
0.111048 0.773854 -0.476847
0.851323 -0.416450 0.424954
0.759657 0.951990 0.728123
0.327748 -0.238877 -0.651223
0.474337 0.459420 -0.851601
0.764687 0.830733 0.008836
0.513865 0.386768 -0.732416
-0.227401 0.012579 0.382792
-0.380992 -0.483235 0.055908
0.240758 0.426785 0.043014
0.804715 0.898051 -0.897893
0.989850 0.692591 -0.630731
-0.984367 -0.987772 0.731998
-0.839338 0.537484 -0.874877
0.968902 0.128647 0.946440
0.103771 0.164598 -0.808494
-0.066278 0.354910 -0.275568
0.803182 0.683523 -0.420907
0.128465 -0.749071 0.987031
0.928584 0.387730 0.754760
-0.539916 -0.473816 -0.570340
-0.469833 -0.438374 -0.067746
-0.447917 -0.780724 -0.053646
0.236840 0.307317 -0.863427
0.135147 -0.747628 0.804220
-0.836601 -0.827541 0.648670
-0.695063 -0.360278 -0.561526
0.181665 0.316129 0.298665
-0.163332 0.937447 0.796939
0.085985 0.002757 -0.401704
0.531666 -0.382373 -0.350449
-0.958708 0.391379 0.362059
-0.743479 -0.630184 -0.177283
-0.318128 0.221158 -0.487300
-0.069380 0.416141 -0.008650
-0.563202 -0.274093 -0.374539
0.063403 -0.474427 0.609260
-0.362998 -0.124221 -0.986471
-0.302987 0.758604 -0.004150
-0.377443 0.332199 -0.696704
-0.897542 0.993037 -0.559101
-0.976705 0.882959 -0.076242
-0.762945 -0.020286 0.339763
0.199901 -0.773172 -0.258647
-0.190178 0.019523 0.857397
0.441444 0.507065 0.151768
0.568110 0.692729 -0.389306
-0.222672 -0.791507 0.541848
0.242737 -0.991764 -0.228052
0.146820 0.180804 -0.408120
0.395136 0.632652 -0.709586
-0.607343 0.641319 0.795860
0.289857 0.451789 0.061067
0.938195 0.978118 0.892961
-0.921471 -0.491305 -0.350220
0.195038 0.782618 0.934821
-0.604235 0.225702 0.204169
-0.422249 -0.709590 0.863108
0.595937 -0.431244 -0.854426
0.558120 0.569216 0.078159
-0.009910 -0.847680 0.049896
-0.674868 -0.026168 -0.878258
0.465565 -0.526100 0.725869
-0.105545 -0.974959 -0.032562
-0.539495 -0.844705 -0.761602
-0.227119 -0.139536 -0.377101
-0.479868 -0.569258 -0.286036
-0.260808 0.164250 -0.122118
-0.570029 -0.501839 -0.056330
-0.998136 0.648555 0.267645
-0.890363 -0.944053 -0.649813
0.181824 -0.093529 -0.407875
0.116964 0.919359 -0.565043
-0.440380 0.172208 -0.511865
-0.533370 0.322002 -0.125384
-0.169734 -0.734955 -0.278087
-0.642002 0.452056 -0.405989
0.834154 -0.515389 -0.054504
-0.534895 -0.083978 0.221570
-0.474174 0.270379 0.053450
-0.704122 -0.587556 -0.321023
0.050513 0.851612 0.382814
0.068377 0.491210 -0.303047
-0.504862 -0.562445 0.676365
-0.948047 -0.201810 0.070652
-0.389016 -0.829384 -0.282914
-0.532481 0.542611 0.854280
-0.750099 -0.370136 -0.134247
-0.356708 -0.283008 -0.925940
-0.262672 -0.611232 0.176185
-0.055599 -0.290214 -0.910713
-0.772905 -0.398830 0.434233
-0.603405 -0.919429 0.147495
0.251591 -0.060842 0.889096
-0.238556 0.966689 -0.963901
0.455592 0.785910 0.474317
0.017807 0.684460 -0.412539
0.129427 -0.560515 -0.078530
-0.499078 0.226651 0.857911
-0.269572 0.131503 -0.898887
0.941950 -0.239401 -0.120425
0.842292 0.381448 -0.453415
0.330868 -0.129440 -0.893293
0.150491 -0.194343 0.754903
-0.707180 -0.322201 0.131318
0.373329 -0.836434 -0.093654
0.611326 -0.532973 -0.597371
-0.915804 -0.273725 0.285409
-0.719648 0.806376 -0.671151
0.411936 -0.998801 -0.202113
-0.601229 -0.772179 -0.432152
-0.973620 -0.494115 0.181696
0.105398 0.707745 -0.750499
0.154014 -0.496615 -0.485364
0.276822 -0.575040 0.458130
-0.305951 0.582549 -0.301353
-0.378764 0.876148 0.114397
-0.658023 0.597817 0.873984
0.766340 -0.486692 -0.595468
0.057091 0.467790 0.046095
-0.314707 -0.273993 -0.294256
-0.740033 -0.340345 -0.398674
-0.539947 -0.045880 0.026046
-0.492018 -0.605448 0.425765
0.793280 0.796402 0.828074
-0.869418 -0.693337 -0.822861
0.253884 -0.718356 0.093917
-0.537443 0.710020 -0.954623
0.890685 -0.555765 -0.135831
-0.346139 0.437623 0.091463
-0.945366 0.602728 -0.218865
-0.919988 0.469659 -0.177878
0.628485 -0.506535 -0.574140
-0.524925 -0.870259 -0.291258
0.254266 0.575251 0.068432
-0.455751 0.055850 0.702714
-0.922133 -0.903606 0.654081
0.889441 0.681467 0.589852
-0.223822 0.449879 0.875765
0.391426 0.273942 -0.411102
0.436431 -0.637089 0.683174
0.196820 0.960834 -0.471818
-0.462833 -0.087505 0.842455
-0.725050 -0.647846 -0.031443
-0.176277 -0.270899 0.968494
-0.645317 -0.209350 -0.002641
-0.720982 0.392244 -0.223863
0.458996 0.491663 -0.288990
0.453100 0.608419 0.268167
0.733464 0.969019 -0.882212
-0.506370 0.849966 -0.921618
0.980005 -0.080477 -0.260702
-0.266235 0.804559 0.554541
-0.778918 0.752481 -0.466841
0.670225 0.476485 -0.770989
0.578020 0.430969 0.010627
0.127062 0.717053 -0.748127
0.390710 -0.575301 -0.842059
0.106086 0.614168 0.200773
0.188453 -0.347258 0.929854
-0.827571 0.918257 -0.704663
-0.194004 -0.827809 -0.718570
0.257821 -0.041422 0.713981
0.638477 -0.148069 0.907966
0.257832 -0.754858 0.786683
-0.286856 -0.764790 -0.352828
-0.761910 0.464760 0.419692
0.411586 0.612822 0.540702
0.635011 0.652146 -0.700725
-0.888037 -0.719211 -0.657368
0.655650 0.330027 0.543847
-0.257640 -0.744581 -0.024134
-0.187945 -0.667557 -0.942396
0.392995 -0.066908 -0.886664
-0.714614 -0.300862 -0.636130
-0.060360 -0.060964 -0.614250
-0.599799 0.259330 0.413647
-0.483772 -0.955527 0.020770
-0.466220 -0.685121 -0.639693
-0.592725 -0.426484 -0.567632
-0.664450 -0.763314 -0.285865
0.553001 0.689962 0.628209
0.018011 -0.817146 -0.523388
0.736666 0.661815 0.041777
0.445010 0.932017 0.163010
0.274376 0.325088 -0.764982
-0.720269 -0.351513 0.146763
0.183944 -0.026462 0.710674
0.692471 0.915317 -0.057811
-0.664861 -0.956457 -0.186976
0.507086 -0.273072 0.223084
-0.068003 -0.353881 0.937748
0.741696 0.073371 0.936826
-0.770852 -0.911102 0.575227
0.370756 -0.999217 0.547946
0.557601 0.823410 0.401901
0.059651 -0.413845 -0.310741
-0.339504 -0.820491 0.963074
-0.925580 0.437326 0.781247
-0.150366 0.242236 -0.966051
0.668656 0.094732 -0.708486
0.153314 0.404899 0.990591
-0.140907 -0.496458 0.641370
-0.324584 -0.905181 -0.655818
0.046110 -0.316862 0.592543
-0.485265 0.084629 -0.633105
0.480581 0.549556 -0.751963
0.742151 -0.856277 -0.834026
0.304035 -0.289376 -0.044220
-0.696711 -0.987736 -0.221149
-0.305120 -0.905914 -0.404128
-0.980706 -0.062635 -0.188657
-0.440844 -0.871386 -0.596533
-0.076806 0.941695 -0.339202
-0.300554 0.642948 -0.026706
0.085216 0.480138 -0.431247
-0.596456 -0.451310 0.147597
-0.654981 -0.386697 -0.932172
-0.071686 -0.602507 -0.038496
-0.207936 -0.219889 0.627708
-0.959907 -0.775498 -0.743228
-0.442837 0.699456 0.190377
-0.799406 -0.381904 -0.537107
0.306280 -0.326180 -0.136334
-0.193851 0.784104 0.903321
0.680640 0.355061 -0.977992
-0.032293 -0.142741 -0.802550
0.959633 0.270563 -0.407554
0.085083 0.392041 -0.279104
0.159144 -0.663198 0.775707
0.075766 -0.211357 -0.966781
-0.341836 -0.106788 -0.222643
-0.978290 0.646561 -0.669429
0.651158 0.001736 -0.856605
0.404604 -0.541521 0.048281
0.352557 -0.953255 0.796103
-0.046522 0.239553 0.599338
0.273498 0.273695 0.481000
0.504154 0.106911 -0.508353
0.388703 0.212703 0.301508
-0.648716 0.289375 -0.093998
-0.766054 -0.128494 0.001950
0.424487 0.740174 0.012558
-0.151698 0.754484 -0.182966
0.312872 0.193932 -0.557861
-0.452680 -0.217312 0.304976
0.106657 -0.263925 0.731612
0.034382 -0.220323 -0.954218
0.677902 -0.381842 -0.559913
-0.726052 0.753983 -0.084628
0.668731 -0.872472 -0.124511
0.020708 0.579005 0.124623
-0.327496 -0.664304 0.782282
-0.965218 -0.375184 -0.649207
0.557520 0.269850 -0.797660
-0.161109 -0.364645 0.000355
0.952322 -0.365737 -0.951714
-0.634936 -0.493891 0.678522
-0.230295 0.521953 0.838727
0.139511 -0.963680 -0.826470
0.098892 -0.695634 -0.751428
-0.293793 0.080429 0.628062
0.557100 0.192313 0.331959
-0.635742 0.510721 0.995964
-0.135152 -0.260011 0.932589
0.649625 -0.854534 -0.444193
0.383676 0.342904 0.503328
0.618169 -0.498416 0.826949
0.805218 -0.852059 -0.414655
0.599421 0.662784 0.996417
0.731938 0.756975 0.199072
-0.773062 -0.207744 -0.626766
0.889280 0.577117 0.931631
-0.839431 0.702547 0.109484
0.197042 -0.283895 -0.795473
0.816830 0.872858 -0.306101
-0.343278 -0.999877 -0.227570
-0.257541 0.909306 0.448925
0.280829 0.872841 0.557429
0.297140 -0.227837 -0.716311
0.408236 -0.907022 0.974536
0.196907 -0.476917 0.675266
-0.673160 0.014530 -0.481928
-0.048823 0.105781 -0.512512
0.830390 -0.327946 0.047887
-0.414458 0.508256 -0.164727
0.167311 -0.136631 -0.696659
0.108027 0.763211 -0.049052
-0.215354 -0.103113 0.189371
-0.707712 0.121892 0.421819
0.386533 -0.600562 -0.629301
0.611665 -0.690636 0.183876
-0.093271 0.080572 0.369226
0.862595 0.190619 -0.298109
0.712738 0.076209 -0.825944
-0.467273 -0.211467 0.811650
0.097375 0.350898 -0.092266
-0.966500 -0.168954 0.877356
-0.878278 0.343088 -0.679555
-0.835351 -0.372562 0.686201
-0.040004 0.741840 0.899862
0.994582 0.696003 0.041727
-0.799586 -0.202526 -0.448461
0.375570 -0.278141 0.513639
0.960814 -0.651271 -0.394290
0.198475 -0.794545 -0.458503
-0.713355 0.872200 0.916646
-0.545606 0.214768 -0.483717
-0.083115 0.405121 -0.153525
-0.784309 -0.306451 0.540535
0.567900 -0.570989 0.396050
-0.097456 0.535121 0.020904
0.724035 -0.869678 -0.769063
0.927225 -0.826238 -0.964377
-0.424213 0.292364 -0.784340
0.080818 0.291072 0.725040
0.334172 -0.606083 0.526874
0.432346 0.328046 -0.354162
0.257297 -0.474850 -0.795344
0.085345 -0.338527 -0.244545
0.203845 -0.124719 0.359269
0.384936 0.296176 0.420253
-0.988535 0.422098 -0.354167
0.421355 0.935463 0.994845
0.697413 -0.825898 -0.936576
-0.289079 -0.926519 0.521551
0.648320 0.120723 0.365814
-0.979558 0.031468 -0.980490
0.358093 -0.387036 -0.809814
0.654439 0.742301 0.805690
0.924570 0.618596 0.679483
-0.620060 -0.780812 0.788396
-0.028002 -0.628614 0.115019
-0.246443 -0.063945 -0.987735
0.467877 -0.847465 0.961661
0.970692 -0.827247 -0.452849
0.668350 0.603006 0.144133
0.966518 -0.715488 -0.345278
-0.376106 0.143187 0.026973
-0.224462 -0.419456 0.681950
-0.180272 -0.306105 -0.192694
0.571430 0.524829 0.414465
0.582417 0.664469 0.976999
0.033092 0.030703 0.462984
0.915214 -0.289887 0.622142
-0.579523 0.025041 0.771380
0.906789 -0.764447 0.182669
-0.631629 0.102916 -0.401566
-0.265595 0.300450 -0.952978
0.321983 -0.559449 0.769992
0.644867 -0.031712 0.413250
0.001705 -0.325208 -0.380759
-0.723333 0.165268 0.553071
0.627819 -0.234767 0.643588
0.798663 0.541240 -0.407972
-0.560770 -0.070817 0.241640
0.805424 0.517389 -0.579845
-0.567266 0.206967 0.401043
-0.303036 -0.270380 -0.295295
-0.453065 0.363631 -0.339353
-0.927362 0.414434 0.997662
0.196657 -0.787748 0.063388
-0.355079 0.128472 -0.117767
0.968399 0.779718 -0.747981
0.822811 -0.264399 0.454525
0.911629 -0.194767 -0.812598
0.103401 -0.870945 -0.235696
-0.274149 -0.071614 -0.994837
-0.071629 0.500038 0.985055
0.379752 -0.731869 0.319738
-0.199747 0.097279 0.782117
-0.553362 -0.724876 0.466940
0.672830 0.425838 -0.059877
-0.171227 -0.921970 -0.033603
-0.751038 0.016777 0.770779
0.509786 -0.488680 -0.232813
-0.183895 -0.268540 0.230654
-0.222124 -0.254143 -0.951372
0.921260 -0.541817 0.626857
0.128327 0.014065 0.203159
-0.220523 -0.498358 0.199954
-0.577111 -0.714633 -0.158464
0.507413 -0.278579 -0.607160
-0.341928 -0.491919 0.516797
0.842548 -0.604749 0.882958
-0.956177 -0.479767 -0.235147
0.599658 -0.597488 -0.014322
0.473729 -0.451577 0.100341
-0.677991 0.021976 0.438253
0.580514 0.565062 -0.192164
0.387920 -0.669786 0.616079
0.982132 -0.862524 -0.989233
-0.214019 0.844158 0.807049
-0.440464 -0.561554 -0.712968
0.031868 0.514069 -0.388323
0.855757 0.692675 -0.037323
0.142496 0.881582 -0.627899
-0.728469 -0.922464 -0.605853
0.060851 0.080645 -0.012666
0.645318 0.978607 -0.780072
0.804094 0.250963 0.342712
-0.788671 0.074743 0.142685
-0.953071 -0.588597 -0.486389
0.645473 -0.658367 0.500984
-0.518652 -0.366127 -0.297965
0.531181 -0.747256 0.514279
0.493108 0.446087 0.420651
0.158740 0.884910 0.233527
0.422642 0.923369 0.285830
0.169247 0.916289 -0.327928
0.061904 0.436912 0.440208
0.209227 0.213905 -0.790377
0.183388 -0.917821 0.690078
-0.951038 -0.716838 0.920451
0.727665 -0.812887 -0.131311
-0.850935 0.107990 0.031433
-0.264719 -0.162309 0.518839
-0.366973 0.736731 -0.938836
0.830799 -0.646352 0.628672
0.397956 -0.876269 -0.263822
-0.402157 -0.002295 0.245715
-0.709718 0.366357 0.443586
-0.871536 0.794884 0.506812
-0.384166 0.563039 -0.750459
-0.777226 -0.364117 0.432224
0.199278 0.590633 -0.417944
-0.039052 0.034082 0.591448
-0.284448 -0.132800 -0.026665
0.286505 0.200528 0.875516
0.476646 -0.648753 -0.189760
0.145658 -0.411472 -0.317423
-0.859974 -0.516655 0.068178
0.984909 0.326387 -0.185058
0.602550 -0.608722 0.567643
0.477124 0.051268 -0.700556
0.395638 0.364638 -0.428336
-0.803611 -0.839468 0.985388
0.246704 -0.198695 0.072067
-0.955072 -0.688180 -0.236078
-0.333205 -0.956379 0.431016
-0.092239 0.987133 0.159777
-0.937388 -0.287996 -0.750923
0.350853 -0.380692 -0.948797
0.949588 -0.384589 0.284541
-0.206826 -0.752338 -0.454079
-0.879069 -0.555096 0.004045
-0.277775 0.929190 0.704745
0.306392 0.835459 0.462842
-0.341829 -0.581076 -0.327132
-0.381750 -0.502949 -0.846836
0.111830 -0.730292 -0.897459
0.200004 0.371892 -0.671735
0.316662 0.067057 0.157734
0.496303 -0.820911 0.896793
0.897313 -0.037653 0.098450
0.683250 -0.804205 0.954080
0.337267 -0.661711 -0.842939
0.872114 -0.101644 -0.566880
-0.807657 0.706342 0.646406
0.296305 0.004886 0.860351
-0.306037 0.416793 -0.659096
0.055616 -0.015470 -0.461255
-0.318426 0.292749 -0.902743
-0.937943 0.384097 -0.234575
-0.992337 -0.247008 -0.595391
-0.603483 -0.296379 0.754653
0.719154 -0.921737 -0.990939
-0.988395 -0.416258 -0.336259
0.404325 0.656328 -0.715259
0.334521 0.451624 0.687128
0.010900 0.958855 0.233314
0.812427 0.015184 0.576946
0.163690 0.163223 0.191371
-0.046467 -0.115398 0.630401
-0.470721 -0.960961 -0.423717
-0.534826 0.623006 0.628572
-0.879734 -0.657343 0.961267
0.450131 0.370138 0.538551
-0.784693 0.998497 -0.409821
-0.858459 -0.617474 -0.034906
-0.199103 -0.190883 -0.923355
-0.783938 0.272334 0.419008
-0.630369 0.948673 0.501248
0.350900 -0.763406 -0.138379
0.107815 -0.574720 0.254360
-0.298597 -0.308223 -0.445547
-0.550466 -0.378955 -0.244820
0.626187 0.229839 -0.953983
0.112369 -0.916863 0.520571
-0.774300 0.230737 -0.448056
-0.080289 -0.780510 0.795349
-0.890114 -0.489701 -0.456178
0.019637 -0.155572 -0.057708
-0.769199 0.887139 0.560023
-0.873798 -0.627143 0.958377
0.060171 -0.365503 0.359187
0.977887 -0.410433 0.957142
-0.761661 0.932068 -0.543321
-0.863057 0.570965 0.204064
-0.648055 0.672174 -0.827877
-0.509245 0.643935 0.588782
0.373922 0.127444 0.286715
0.571543 0.176258 -0.979990
0.168363 -0.723857 0.690111
0.487281 -0.730973 -0.154827
0.430351 -0.471446 -0.287410
0.240353 0.727525 0.863906
0.760752 -0.696856 0.632466
0.582099 -0.085015 -0.135898
-0.319805 -0.522342 -0.406614
-0.418743 0.556562 0.088971
0.569420 -0.578499 -0.124897
0.255638 0.358867 -0.831841
0.920800 -0.539327 -0.157102
0.509540 -0.824355 -0.711778
0.096021 -0.585639 0.010755
-0.761392 0.234093 -0.504627
0.791963 0.302311 0.617644
0.763700 -0.842264 -0.295013
0.175546 -0.161610 -0.621830
-0.193004 0.533288 0.303392
0.656418 0.831986 -0.274830
-0.101705 0.410505 -0.681613
0.365376 -0.500999 -0.725526
-0.111178 -0.099541 -0.972334
-0.344817 -0.848811 0.716269
0.501288 0.675427 -0.529405
0.757926 0.693040 0.428691
0.175326 0.486132 -0.932050
0.429683 -0.034808 -0.700243
0.582802 -0.510790 -0.820130
0.912327 -0.302585 -0.815443
-0.361748 -0.877707 0.095771
0.415782 -0.493508 -0.805031
0.872139 -0.506303 -0.219534
0.988947 0.358135 -0.754553
-0.832445 -0.727780 -0.332033
0.020387 0.468316 -0.268630
-0.676582 0.885194 -0.644851
0.704661 -0.131343 0.796071
-0.125681 -0.450772 -0.091271
-0.550661 0.811493 -0.406603
0.801304 0.424423 -0.774674
-0.481158 0.148058 0.751021
0.679758 -0.794647 0.652228
0.952145 0.195532 -0.433870
-0.405460 -0.335915 0.446203
0.954231 -0.021624 -0.587860
-0.116127 -0.210165 0.193673
-0.437646 -0.525868 -0.851958
0.189622 0.214396 0.563834
0.113158 -0.153740 0.153773
0.574828 -0.819527 0.176488
0.116535 0.822679 -0.779479
-0.122531 0.716170 -0.896670
-0.627568 0.095825 0.656273
0.387788 -0.930266 -0.369970
0.726432 0.028222 -0.029439
0.544021 0.248350 0.381675
0.770253 -0.190917 -0.929865
0.369916 -0.483936 -0.560445
0.630046 0.290838 0.721444
-0.068331 -0.435047 0.185304
0.387014 0.483988 -0.977320
-0.882758 0.710088 0.233923
0.341140 0.222798 -0.101690
-0.703685 0.116794 0.768722
0.398463 -0.130855 -0.109984
0.636272 -0.104946 -0.064929
0.863024 0.766040 0.372884
-0.049907 0.664352 0.625022
-0.166494 0.003680 0.631168
-0.349543 -0.415202 -0.476222
0.835254 -0.576939 0.704596
0.172074 0.752469 0.563691
0.155014 -0.625222 0.774178
-0.850173 0.760375 -0.635257
-0.372837 0.777535 0.588483
-0.713406 -0.961261 -0.484700
0.735085 -0.273007 -0.512984
-0.559484 -0.048179 0.050147
-0.731396 -0.161833 0.965226
-0.301022 0.822542 0.410404
-0.649488 0.073134 0.360060
-0.086039 -0.133225 -0.813263
0.304207 -0.746885 0.678909
-0.677758 0.091852 0.536662
0.748321 0.676919 0.650827
0.284047 0.631195 -0.178736
0.249187 -0.537527 0.744428
0.883502 0.696430 -0.280938
0.900644 0.088592 -0.179112
0.720830 0.541231 0.759297
-0.381747 -0.847496 0.633960
-0.171036 -0.690888 -0.498932
0.784524 0.880040 -0.018309
-0.873750 0.239171 0.811776
-0.025579 -0.595115 0.055158
0.229780 -0.163764 0.700012
0.395656 0.608343 0.375758
-0.285799 -0.853880 0.406953
-0.524782 -0.031599 0.926213
-0.179274 0.450760 -0.937231
0.846465 0.241137 0.063645
-0.829549 0.169761 -0.073751
0.554655 0.781368 0.302931
0.048848 -0.864655 0.183674
0.850123 0.163859 0.544202
0.698900 -0.337650 -0.096754
-0.927605 -0.565313 -0.637611
0.752546 0.252408 0.120963
-0.257485 0.735447 0.299056
-0.600084 0.352649 -0.499367
0.826596 -0.387787 -0.973550
-0.242526 -0.811175 0.704031
-0.440526 -0.673141 0.933948
-0.193749 -0.641092 -0.294667
-0.809995 0.673212 -0.104865
-0.397525 0.645362 0.426833
0.692436 0.384851 0.246584
0.202616 0.784901 0.741796
-0.366890 0.105539 -0.302979
-0.338566 -0.895467 0.364517
0.577985 -0.370039 0.828991
-0.055113 0.926736 -0.000796
-0.407638 -0.631413 0.536199
0.898196 0.435385 -0.208196
0.534602 0.700783 0.888756
0.550224 0.705150 -0.464722
0.979355 0.702286 -0.702269
0.916209 0.191219 0.449379
0.914794 0.430875 -0.647527
0.596889 -0.586386 0.548989
0.508391 -0.247699 -0.356870
-0.956385 0.879876 0.494473
0.249747 -0.573380 0.062140
-0.943877 -0.847178 0.152236
-0.205775 0.971754 0.233228
-0.369921 -0.469823 -0.962775
0.518382 -0.758968 0.241001
-0.943052 -0.302456 0.021223
-0.402386 0.309474 0.240558
-0.106138 0.294484 0.341264
0.099573 -0.152822 -0.397312
-0.444638 -0.827701 0.674230
-0.157845 -0.915315 -0.004349
0.101074 -0.856893 -0.853397
-0.805278 0.197323 -0.940855
-0.801407 -0.940222 -0.445791
-0.122874 0.971530 -0.763312
0.370338 -0.046429 -0.302212
-0.281278 -0.942265 -0.999187
-0.350096 0.634762 -0.770660
0.827405 0.674050 0.906708
-0.514736 0.781942 -0.892576
-0.134063 -0.444653 -0.388490
-0.921408 -0.863894 0.258173
0.425229 0.222914 0.933851
0.756233 0.842626 0.922221
-0.942440 -0.698467 -0.257997
0.004313 0.309914 -0.329086
-0.428817 -0.101981 -0.728000
0.881206 -0.272236 0.748163
0.330031 0.070445 -0.813989
0.562061 -0.902607 -0.853142
0.156143 -0.787397 0.056259
0.622373 0.113594 0.855823
-0.231336 0.339198 -0.567787
-0.208268 0.015879 -0.392429
0.861697 0.873541 0.795924
0.722401 0.244771 0.271683
0.859631 -0.761954 -0.117867
0.246314 -0.583481 -0.108784
-0.949546 -0.651968 0.636504
-0.651193 0.638145 -0.826876
-0.691037 -0.451364 0.570218
0.743632 0.585869 0.808232
-0.988733 -0.988816 -0.386693
-0.556602 0.959271 -0.062649
-0.980070 -0.318391 -0.006359
-0.528829 0.960893 -0.219726
-0.281835 -0.718544 0.757148
0.684506 -0.258177 0.378773
-0.267552 0.376157 -0.798232
0.476977 -0.005868 -0.291334
0.379519 0.560401 0.386540
-0.734506 0.170971 -0.337296
0.146648 0.732565 0.216498
-0.461788 -0.502705 -0.730852
-0.489478 0.311127 0.099545
-0.171245 -0.362055 -0.914283
0.791086 0.170692 -0.096161
-0.661094 -0.911576 0.035510
-0.554172 0.516182 0.963342
-0.474705 0.893488 0.911092
0.634034 -0.042211 -0.044602
-0.558423 -0.348294 -0.056784
0.369298 -0.809656 0.191827
0.705159 -0.360912 -0.982026
-0.336507 0.939111 0.751991
-0.819139 -0.633859 0.348598
-0.979272 0.020539 0.258547
-0.682986 0.322792 -0.770697
-0.957521 -0.500865 0.210225
-0.180267 0.683520 0.787227
-0.335772 -0.805143 0.692019
-0.953942 -0.836133 0.360056
0.666344 0.452865 -0.181100
0.168517 0.835894 -0.681994
0.842530 0.841741 0.853839
-0.911994 0.364473 0.927239
0.625266 0.789888 0.174437
-0.130725 -0.766865 -0.118484
-0.819560 0.427083 -0.777587
-0.559540 -0.085235 -0.804139
0.942575 -0.834656 0.386746
0.671310 -0.166154 0.552888
-0.021848 -0.433498 0.515816
-0.084356 -0.099644 0.710644
0.321732 -0.866885 -0.600312
-0.175564 0.374969 -0.295349
-0.109393 0.471002 0.935450
0.321529 0.402835 0.342212
-0.706002 -0.876617 -0.379844
-0.750193 -0.387869 0.045892
-0.116593 -0.187417 -0.259126
-0.255778 0.748735 -0.505232
0.748211 0.215734 0.219490
0.324234 0.873232 0.621369
-0.294638 0.932926 0.104003
-0.074965 -0.893853 -0.698360
0.336492 0.156591 0.586686
0.335949 -0.819928 -0.297017
-0.870168 -0.268708 0.033546
-0.801810 -0.247391 -0.593514
0.398238 -0.199572 0.362238
-0.024069 0.421930 0.994446
0.927861 0.713420 -0.182900
-0.597571 0.871307 0.733497
0.525135 -0.931729 -0.289582
-0.257878 -0.427950 0.607213
-0.585764 -0.471177 0.650708
-0.957735 -0.465648 0.267213
0.443087 0.526024 0.535721
-0.699357 0.502767 -0.209415
0.948551 -0.914281 0.427485
-0.515508 0.680348 0.450225
0.904968 0.795750 0.272486
0.966911 -0.968412 0.755166
0.093672 0.568731 -0.049210
-0.181158 -0.386897 -0.858184
0.142196 -0.590896 0.435388
0.688030 0.895133 0.542043
0.106035 0.173419 0.186516
0.072488 0.511776 0.337340
-0.910312 -0.743961 0.649463
-0.042780 -0.074178 -0.484527
-0.422511 -0.677069 0.581444
0.727257 -0.228815 0.825348
0.015516 -0.242783 0.511288
0.833768 0.513959 -0.757414
0.948090 -0.715108 0.501090
0.584926 -0.129478 0.462096
0.967887 0.046024 -0.892121
-0.556401 -0.562156 0.105631
-0.521038 -0.128681 0.191971
0.549087 0.303346 -0.437805
0.983900 0.436482 0.424307
-0.381288 0.988491 0.354012
-0.055845 0.672402 0.446001
0.357888 0.920666 -0.552543
-0.553381 0.043885 0.343768
0.114081 -0.790379 0.879956
-0.496809 -0.781301 -0.671152
-0.595547 0.039750 0.886370
-0.959199 0.838201 -0.851151
0.201615 0.502565 -0.295737
0.646407 0.504110 -0.927710
-0.615992 -0.052965 0.278065
-0.254447 0.390304 -0.709281
-0.619545 -0.736194 -0.716963
0.693461 -0.549212 -0.726430
-0.488941 0.834629 0.104146
-0.972673 -0.546608 0.880839
-0.091114 -0.472066 0.125015
0.381713 0.934238 -0.959509
-0.411087 0.094331 0.716530
-0.117532 0.541238 0.584492
0.000680 -0.268515 -0.768608
-0.595870 -0.877679 0.407093
-0.477470 -0.400346 -0.732084
0.844546 -0.193655 0.194544
-0.961109 -0.607033 -0.058423
-0.789330 -0.754894 -0.615835
0.098004 0.415516 0.304625
0.921936 0.685686 -0.959852
-0.758954 0.064505 0.423625
-0.453050 0.307468 0.430060
-0.165602 -0.893365 -0.440530
0.202493 -0.282381 0.658250
-0.878287 0.161565 0.394201
0.337205 -0.740812 -0.101307
0.832312 0.396937 -0.218498
0.022276 0.545643 0.228735
-0.026352 -0.999536 -0.808872
0.462954 0.974951 -0.063086
-0.341979 0.229670 -0.732599
0.465796 0.385533 0.302496
-0.932967 0.387250 -0.925012
-0.653973 0.937437 0.772305
-0.558819 0.730400 0.891107
-0.647091 -0.199981 -0.984671
0.256216 -0.557917 0.737840
-0.706112 0.152339 -0.987963
-0.006781 0.159694 0.186557
-0.348608 -0.981799 0.446842
0.400626 0.677446 0.537172
-0.665526 -0.102725 -0.363452
-0.358711 -0.980583 -0.486837
-0.134579 0.668969 -0.617830
0.038559 -0.223685 -0.079620
0.086497 -0.013655 0.735140
0.211250 -0.723054 -0.765618
0.490756 -0.031119 0.141938
0.751519 -0.939128 0.779426
0.643395 -0.093969 0.288063
0.668205 -0.552338 -0.796756
0.566918 -0.035981 -0.098201
-0.310647 -0.674834 0.857037
-0.033845 0.481911 -0.905163
-0.003200 0.844502 0.369904
0.379948 -0.498096 0.997904
-0.545843 0.228081 0.728689
0.871233 -0.014178 0.433485
0.822019 0.969342 -0.659083
-0.254174 -0.392918 0.965572
-0.876309 -0.731788 0.004458
-0.946701 -0.964230 -0.416660
-0.548656 -0.250488 -0.579889
-0.351980 -0.740013 -0.783953
0.201848 -0.721742 -0.868228
0.339594 -0.053216 0.048238
0.009148 -0.860210 0.738107
0.872673 0.397667 0.039202
-0.425612 -0.667016 0.851723
0.675235 -0.891999 0.237747
0.258563 0.596172 -0.399327
0.473969 0.785915 0.532263
-0.830818 0.397788 0.171311
-0.329254 0.230262 -0.900302
-0.048094 -0.089803 -0.081276
-0.322851 -0.194937 0.655244
-0.725761 -0.770139 0.128085
-0.908678 0.336653 -0.696273
-0.147776 0.283933 -0.769318
0.184124 0.125706 -0.270139
0.886008 -0.392127 0.884931
-0.749286 0.800051 0.778910
-0.049512 -0.543250 0.368290
0.055611 0.037642 0.463316
-0.756794 -0.393813 0.075170
0.270357 0.327314 0.704026
0.342092 0.439045 0.724589
0.780567 0.239090 0.757753
0.377665 -0.885270 0.663469
0.191781 0.242968 0.640493
0.045007 0.770293 -0.727471
0.356242 0.825658 -0.054292
-0.632793 -0.793695 0.742995
-0.373348 0.880723 0.176810
0.652533 0.903268 0.806551
-0.108943 0.661177 -0.689310
-0.918852 0.430605 0.075099
-0.356819 -0.143934 -0.694820
-0.044769 -0.851516 0.334861
-0.861424 0.295837 0.579535
0.067275 -0.993172 0.401697
-0.503562 0.942385 -0.206149
0.644614 0.440781 0.778433
0.259714 -0.715349 0.907900
0.213359 0.351022 0.032862
0.567215 -0.428964 0.748859
0.877852 0.403905 -0.037640
0.320435 0.800341 0.894972
-0.939768 0.110834 0.780804
-0.350013 0.291656 0.171522
0.284034 -0.924736 0.961364
0.490853 -0.058954 -0.654081
-0.624237 0.333155 -0.087199
-0.740942 -0.102685 -0.452457
0.451556 -0.710278 0.107913
0.565298 0.705649 -0.189875
-0.698852 -0.659545 -0.664647
-0.325472 -0.151462 -0.141671
-0.265226 -0.186835 -0.304687
-0.840597 -0.618701 0.821939
0.514036 -0.619346 -0.390777
0.567984 -0.097648 -0.910593
0.543825 0.500822 -0.615458
0.412800 0.831293 0.347445
-0.591310 -0.918107 -0.203773
-0.913953 -0.074744 -0.277740
-0.767808 0.490057 -0.134829
0.035636 0.442836 0.717941
0.402358 -0.783111 -0.407671
-0.923599 0.022258 -0.839528
-0.113155 0.516934 -0.166242
0.128142 0.543512 0.884397
-0.172820 -0.094438 -0.988534
-0.103806 -0.754143 -0.962266
-0.580541 -0.496535 -0.408383
0.837139 0.848503 -0.682448
0.199540 0.652464 -0.174795
-0.924374 -0.844867 -0.017269
-0.813141 -0.831088 0.197733
0.189605 0.151852 0.538400
-0.973288 0.409409 -0.187952
-0.740428 -0.245319 0.197938
-0.359431 -0.498349 0.939333
-0.669751 -0.921277 -0.801267
-0.100285 0.231042 0.518997
0.091809 0.562770 0.394704
0.242892 -0.164890 0.608164
-0.764318 -0.563792 0.055015
0.801398 -0.200913 -0.602145
0.003110 -0.904862 -0.085055
-0.728016 -0.904974 -0.040760
0.360276 0.029347 0.864904
0.711574 -0.473368 0.679492
-0.430644 0.917788 -0.256764
0.084905 0.504294 0.931707
-0.450254 0.901305 -0.105029
0.098067 0.746715 0.679016
-0.176391 -0.918927 0.255549
0.820093 -0.944006 -0.793922
0.038840 -0.985647 0.360052
0.225629 -0.615753 0.816560
-0.385969 0.056990 -0.173297
-0.113995 0.579377 -0.058593
-0.560901 0.523411 -0.376231
-0.116574 0.364818 0.516246
-0.099524 0.560444 -0.430139
-0.423118 0.348678 -0.272433
-0.382259 0.237875 0.627207
0.426869 0.118239 -0.751092
-0.463184 0.973756 -0.506684
0.295111 -0.974719 0.199881
-0.272703 -0.909193 0.375924
-0.922460 0.036600 -0.126175
0.321868 -0.533067 0.940824
0.777575 0.191776 -0.828757
-0.379479 0.676378 -0.690847
0.634396 0.850659 -0.954979
-0.175343 -0.858009 0.408756
-0.240444 -0.644250 0.521580
0.626785 0.297233 0.831579
-0.696689 0.547334 -0.751448
0.396699 0.911072 0.225428
-0.503593 -0.876950 0.216846
0.199781 -0.261553 0.641464
-0.276707 -0.470872 -0.628740
0.605579 -0.333155 -0.265438
-0.983878 0.199923 -0.302183
0.953193 -0.009761 -0.356153
-0.815225 0.042720 -0.177029
-0.203728 0.995605 -0.848829
-0.696127 -0.941661 0.957731
-0.403286 -0.710028 -0.021073
0.976187 0.127575 0.024890
0.886315 -0.718717 -0.890618
0.739302 -0.236932 0.643425
-0.392002 0.932715 0.740678
0.813323 0.787582 -0.647042
-0.852972 0.625480 0.889239
-0.942923 0.026081 0.009152
0.713461 0.879849 -0.415234
-0.668769 0.415740 0.605458
-0.446165 -0.924545 -0.581287
0.678641 -0.205559 -0.981690
-0.243373 -0.408677 0.968497
-0.439858 -0.208316 -0.333438
-0.914674 0.083087 -0.567850
-0.207589 -0.386699 -0.119861
-0.152369 0.523238 -0.764306
-0.371034 -0.497241 -0.177493
-0.527622 -0.919468 0.768864
0.850112 -0.997338 0.360457
0.793602 -0.403493 0.850575
-0.597853 0.986925 0.061179
0.379204 0.815973 -0.523835
0.868081 0.635548 0.541648
-0.627573 -0.536639 0.989423
0.671372 0.919558 -0.080054
0.053926 0.588453 -0.583214
0.365643 -0.893960 0.961565
0.529746 0.611994 -0.445267
0.648683 0.200033 -0.702068
0.343097 -0.157718 -0.735859
-0.622225 -0.901887 0.144866
0.574814 -0.091782 -0.299553
-0.328376 0.507377 -0.502143
-0.725798 -0.026512 -0.433443
-0.314319 -0.452016 -0.391518
-0.975557 0.110224 0.676880
-0.644880 0.998841 -0.518397
-0.175081 -0.767010 0.419605
-0.050147 -0.923229 0.882804
-0.878787 -0.241163 -0.139433
0.131931 -0.563935 -0.795984
0.251043 0.656281 -0.497522
0.736675 -0.627072 -0.269471
0.089168 0.597456 -0.419424
-0.669155 -0.009450 -0.706169
0.678648 -0.513478 -0.398488
-0.415717 0.989148 -0.501627
0.838780 -0.090913 -0.584033
0.356830 0.143319 -0.131816
0.982334 -0.412603 -0.576656
-0.805375 0.417189 -0.782933
0.665763 -0.507012 0.398262
-0.664098 0.061529 0.360008
0.085119 -0.552270 -0.197717
-0.089100 0.966330 0.284519
0.658576 -0.768741 -0.714519
0.511922 0.332790 -0.280959
0.348622 0.014648 -0.927891
0.814857 -0.402814 0.289543
0.965835 -0.399684 -0.678629
-0.173329 0.365330 0.892370
-0.897156 -0.223886 0.875891
-0.550824 0.881993 0.489990
0.017186 -0.065262 -0.603475
0.417288 -0.911679 0.400878
0.277550 0.243205 0.834994
-0.758116 -0.702549 0.630138
0.110090 0.288270 0.296335
-0.828623 0.651406 -0.690937
-0.657472 -0.209070 -0.827824
0.207397 0.399077 0.926162
0.486591 0.550544 0.365597
0.857670 -0.248003 0.804338
0.726156 -0.083951 -0.830478
0.084528 -0.196745 -0.489546
0.218051 0.507049 -0.869857
0.485275 0.418231 -0.888381
-0.973212 -0.481778 -0.091731
-0.892824 -0.341373 0.679820
-0.550580 0.540635 -0.350110
0.372080 -0.585288 0.624886
0.680257 0.716833 -0.588602
0.150205 0.074920 0.784106
0.720270 -0.392838 -0.113733
-0.908315 0.304603 -0.970609
0.403083 0.478024 0.765789
-0.300396 -0.818397 -0.975403
-0.535070 -0.377281 0.466161
-0.025662 0.622113 -0.052389
0.919634 0.687628 0.371529
-0.438013 0.667509 -0.609130
0.099476 0.074389 -0.423364
-0.821688 -0.862320 0.599171
-0.066328 -0.139199 -0.450557
0.289137 -0.381488 -0.499279
0.794326 -0.555882 -0.878185
0.163162 0.756225 0.121516
0.724908 -0.386567 0.593166
0.913143 -0.618962 -0.845926
0.942773 0.458924 -0.832528
-0.145291 0.196287 0.578403
0.427695 -0.942762 -0.273530
-0.302482 0.903712 -0.877476
-0.694263 -0.868290 0.691865
0.335700 0.003202 -0.417858
0.059287 -0.685018 0.218107
0.858146 0.966300 0.289707
0.248436 -0.858927 -0.189164
0.842184 -0.012097 0.527289
-0.899014 0.581440 -0.694970
-0.761321 0.908648 0.453142
-0.114938 -0.659113 0.989181
-0.467973 0.716133 -0.613068
0.846805 -0.186678 0.275919
-0.593695 -0.077738 -0.960388
0.905014 -0.101615 0.604259
0.098952 0.035809 -0.737638
-0.410989 0.554792 0.968183
-0.809177 -0.211501 -0.120789
0.038856 -0.164830 0.020741
0.420332 -0.048419 -0.523390
-0.616405 -0.246827 -0.299282
0.599112 -0.822188 -0.941672
-0.612859 -0.949723 -0.332455
0.124510 -0.747895 -0.169402
-0.949814 0.671517 0.231426
-0.150433 -0.694177 0.242003
0.566461 -0.475419 0.340148
0.261658 0.791672 0.402781
-0.901508 0.908957 0.641833
-0.562371 0.556138 0.206894
0.801031 0.404840 -0.100819
0.298531 -0.917003 -0.355440
-0.485232 0.974069 -0.968260
0.615610 -0.684046 -0.297506
0.056560 -0.711519 -0.091525
0.224332 -0.978857 -0.375714
0.901835 0.202495 -0.053763
-0.301004 0.412603 0.272594
-0.753566 0.914588 0.038903
0.621273 0.977548 -0.008228
0.000058 0.094735 -0.390890
-0.349293 -0.368324 -0.388100
-0.875571 -0.372737 0.765575
-0.294429 -0.959706 0.914367
0.261332 0.763852 0.778792
0.827350 0.166780 -0.851852
0.550640 0.627084 0.257995
-0.830493 -0.735503 -0.400329
-0.229438 -0.052347 0.909039
0.161951 0.745514 -0.811913
-0.873438 0.510699 0.881062
0.032293 0.203099 -0.441215
-0.635503 -0.464023 -0.550137
-0.813017 0.738243 0.385371
-0.748190 -0.179999 0.153032
0.874515 -0.409707 0.673205
-0.049969 -0.482110 0.979847
0.108236 0.232151 0.801473
0.340513 0.271388 0.908930
-0.506373 0.500218 0.625944
-0.080280 -0.862645 -0.807305
0.926828 -0.345370 -0.413690
-0.034082 -0.680545 -0.226727
0.988159 -0.712456 -0.168532
0.203198 -0.828764 -0.937111
-0.631397 0.503684 -0.015336
0.708334 -0.343424 -0.526945
-0.767545 -0.103515 -0.618861
0.652543 0.190699 -0.661407
-0.674382 -0.702794 -0.796285
0.812815 0.733761 0.394833
0.190353 -0.706225 -0.554012
0.267347 -0.208743 0.681600
0.251307 0.663679 0.272964
-0.012857 0.070445 -0.642247
0.125959 0.755908 -0.255540
-0.779897 -0.187014 -0.150836
-0.990754 -0.280520 -0.598984
-0.203508 -0.424725 -0.270240
0.449692 0.474740 -0.158618
-0.183977 -0.434476 -0.999548
-0.046072 -0.649236 -0.660913
0.169227 -0.445941 -0.428163
-0.988264 0.596174 0.845763
-0.352294 -0.109489 0.941189
0.653560 0.727994 -0.127307
-0.001607 -0.820578 -0.137503
-0.692695 0.847678 0.514671
-0.327533 0.844512 0.197282
0.132273 0.567647 -0.527912
0.383747 -0.833308 0.987705
0.074081 0.888426 0.305879
-0.514911 -0.663388 0.720348
0.800338 0.106037 0.414049
-0.991708 0.062199 -0.848679
0.168901 -0.601764 0.318316
0.723712 0.448907 0.237997
-0.701864 0.675752 -0.257147
0.359139 0.339327 -0.212053
0.519608 0.705237 0.956586
-0.117580 0.192094 -0.583876
-0.557947 -0.689292 0.732371
0.164828 0.725060 0.429356
0.239445 0.305254 0.914629
0.154450 -0.794308 0.772646
-0.324142 -0.770352 0.403494
0.186543 0.395726 -0.826147
-0.491030 0.160305 -0.333020
-0.453096 -0.386312 -0.527889
0.682161 -0.293657 0.402136
-0.958149 0.018638 -0.871141
-0.991820 -0.041033 -0.934903
0.362396 0.988297 0.230981
-0.892474 -0.047293 -0.307493
-0.568927 0.601844 0.079936
0.798004 0.494963 0.295933
-0.735698 -0.389434 0.858378
0.244664 0.204098 0.954595
-0.093624 0.362064 -0.984108
0.297448 0.147632 -0.493359
-0.915415 -0.887270 0.354443
-0.726645 0.608314 0.809993
0.115725 -0.787178 0.451560
0.166533 -0.863938 0.426318
0.569465 0.165160 -0.023545
-0.920752 -0.846918 0.659209
-0.127635 -0.290757 -0.710100
0.800647 0.280390 -0.603198
-0.390713 0.436434 -0.994544
-0.439100 -0.419758 0.408594
0.180511 0.456833 0.053152
-0.017818 -0.493522 -0.345526
0.235049 0.948048 -0.916889
0.611838 -0.573205 -0.170220
0.114677 0.277269 -0.751514
0.051087 -0.477298 -0.367803
-0.613038 -0.607987 0.622519
0.218641 0.250753 -0.134735
-0.566286 -0.836362 -0.525616
0.822997 0.296227 0.098592
0.445401 -0.580436 0.922724
0.108700 -0.732604 -0.482660
-0.743673 0.714182 0.084750
-0.049332 0.905970 -0.993558
-0.573667 -0.641366 0.480434
0.633813 -0.236658 0.837118
-0.645901 -0.330154 -0.809019
0.100186 0.064159 -0.700720
0.035167 -0.017483 0.706918
0.888733 -0.960947 0.180729
-0.452158 0.834455 0.384102
-0.095750 0.083912 0.067621
-0.876155 -0.315308 -0.095358
-0.186320 0.727464 0.471368
-0.544304 -0.095327 -0.990992
0.830447 -0.768294 0.599656
-0.844738 0.149933 0.686629
0.138182 0.611792 0.678965
0.847682 0.371301 0.183466
0.388556 -0.773501 0.329076
0.816924 -0.186314 -0.105752
0.366922 0.545786 0.507435
-0.420518 -0.006897 0.194573
